ply
format ascii 1.0
element vertex 805
property float x
property float y
property float z
end_header
0.09282372427814457 -0.9755439894829041 -0.22124613712526078
-0.20239483725599028 -1.221474088809822 0.2830444380437282
0.7045446747161137 -1.2036308752802833 0.24397653505299124
0.5704471170708246 1.125381095856281 -0.0886214132415865
-0.18618182992101742 1.0520396032524655 -0.16633554873423959
1.2268062349089492 0.16690643942211122 0.33156618754444384
0.5057004168930447 0.6214536723356722 -0.15425948581066312
0.9926388676570692 0.5961807589554873 0.33262704312180447
0.7898868905460865 -1.0781076299221661 -0.20437306152955373
1.2140721136064982 0.434290022481145 -0.21092056407078014
0.37403173042063476 0.9542970726320428 -0.2592822249928241
-0.25019719899144854 -1.0730751312910967 0.34823981309106933
1.375655210250235 -0.595589482158957 -0.10583164990752354
0.21141947264339264 1.1405299764443575 -0.14181365887709468
1.392229569821648 -0.5600417339301895 -0.05811601696580296
1.4000018796940024 -0.05557482690270475 -0.2028462277835466
0.6895597529200084 -0.611484375591948 0.021733183734089556
-0.1920459243204302 -0.7060926551933127 0.011378300142135473
0.8802428836291926 -0.9219675456375236 -0.2436297782198764
-0.28232250435871276 -1.127991625411985 -0.22704448989651474
0.11410040524892925 -1.1052040341057554 -0.24794809062004075
0.321787379462967 0.718786134155348 -0.19941284967298528
-0.5081604472757394 -0.43822572293734047 0.2548462096805136
0.9597097584087622 -0.607424583351085 -0.21704717453437408
1.0393130830136466 -0.4395901273184269 -0.23855756580625137
0.43936082208840366 -0.7668906095440825 -0.06456590336724713
0.40579312493680125 0.6096499405115515 -0.09913798091247357
-0.09271639566728485 -1.3028563580424273 -0.15533377464431292
-0.48388640775481934 -0.14438829863749597 0.08531663137031843
0.17097114607759759 -0.8467338324280539 -0.08928901460099792
0.554419546073534 0.6986705902851927 0.34369957192148415
0.8932978276277195 -0.9709899338750444 0.33129068971331604
1.3677224016545897 0.4731704525745751 0.1087073797816523
-0.8609379482865803 0.24129947134045956 -0.2313810313626682
-0.49625000178974316 -1.0112428947657022 -0.234028044605351
-0.0805260781016314 0.5875923090222868 -0.09610627131988071
0.2595449936150533 -0.8499726509639111 0.1839721322447331
1.4799984545482894 -0.06856048612180672 -0.09422280098495392
-0.038176255678836285 0.9828102583364359 -0.22662721830753496
-0.42091028111886436 0.2350538538193013 0.03112014683571105
-0.49453310746568807 -0.7248584209205184 0.3405686664839842
1.4231326528203152 -0.4689917263933461 0.12870821499920532
0.9840954117799947 0.2346228382900168 -0.20703357445026943
-0.6197417603567325 0.6060154819774783 0.3539245860023872
-0.9337301962072041 -0.5520785459287506 -0.16783302991689367
1.29257425134937 -0.21064443569501728 0.34669665081042345
-1.0154249049492827 0.3280179902679974 -0.028670785296541518
-0.6457351315977881 0.6210122540977387 0.3165632236041873
-0.2714779074722255 -0.7599113199174562 0.2773199735486408
0.5071875363048182 -1.2576913267184413 -0.17719497791085403
-0.7232344820250153 0.7244762721727469 -0.13063305345304155
0.26344097889491475 -0.8189336771212902 -0.057048565088579965
0.8395299934909224 0.2160205037749159 -0.0017189746480076725
1.1978099686235613 0.6974449071741496 -0.07339686503283964
1.1404472980004858 -0.9210051421594084 0.2174140942811014
0.6078490420541173 -0.8252971651423664 -0.20538970306399915
0.929041132539393 -0.037335725838338114 0.16185851498314205
0.8363213326356473 -1.1523128021977276 -0.14309321796450294
1.2781438915037309 0.3311462507451453 0.30671192216279297
0.9547762968970723 -0.27470293711002997 -0.1420771325004581
0.5232582015921303 -0.8798197127155781 -0.22567111956375055
-0.831012637820004 -0.27440000865091 0.35351396998697665
1.0775950481755543 0.6584562528616867 0.31299086627329414
-0.5417597019519319 -0.6170837311241582 0.3452724386611205
1.440963807346296 -0.4385143753721049 0.0222996830641389
0.02607686797294653 1.1977940417220572 0.030989462448621826
0.37764794890493325 -1.3705310115284353 -0.0400799289384535
0.41886540265571937 0.5672849187337831 0.11324927877887767
0.5223897816912456 0.526612859863891 0.08027252395703562
0.1549149960148535 -1.3365283521828613 -0.14946714606741493
1.2977090492618886 -0.23444229740394948 -0.24126848075403248
0.8520885601522636 -0.5846694936944309 0.2956795939426132
1.3988481306542013 -0.38782799632179504 -0.14929107349830537
-0.8585146620272323 0.5380091436541314 -0.13448864106612066
0.6626009512809121 0.4678998937920248 -0.08550659143258865
0.5467569165796144 0.5461085954452226 -0.05155744876429347
-0.053496881630758414 -0.7747657643213418 -0.11159741498174966
0.6525648374779746 0.4597960498206503 0.14060575207746825
-0.7872240738044444 -0.48215069198774 -0.2542253187982477
0.11617687845596347 -1.3890194329150847 0.0036368433355132676
1.46893559073752 -0.4483833332999085 0.015266064238508178
-0.5117281757405466 0.0239500566372423 0.08224454552311339
0.9308865413220279 -0.027306187977414537 -0.10738191100654115
0.6393699226518522 0.5785056894211013 -0.1862364531044649
1.0746560669524965 0.09177675061820406 0.34111212568237437
0.2914045970344384 1.0410832652103812 0.3104266857485129
0.25819035932573914 1.1734654633623969 0.1628574499342724
1.0277571090433315 0.8713121058413553 -0.04813797512853129
0.27890798277985646 -1.1433065383269172 0.3421710579545322
-0.6105205115283557 0.12398236913527719 0.32466268912501917
-0.5219392567883825 -0.5297270959196987 -0.2081905460884847
1.1181664076380207 -0.9811330946256082 0.16093830130146344
-0.927337386449789 -0.1578627485095135 0.3111690223380151
-1.104836044813881 -0.24591779898924565 0.043011726570683924
-0.2212597510637067 -0.6783964668150401 -0.04167446825661302
0.9223369287480484 0.03785792075010193 0.17890882943697187
0.9808303388425949 -0.5232291427173617 0.33462158851065155
0.2825397903764494 0.6219878655701007 -0.09882963765285284
-0.5143134312840001 0.9794342957611886 0.056062786361434976
0.8592084288645543 0.14070970660111037 -0.00162390337705786
0.6501173833600901 -1.0190225733313125 -0.2509359790002762
1.307377419923747 -0.30745059317171003 -0.23232872922973863
1.1500405204393227 -0.9606579196971125 0.0044208210928936955
0.7712405695199767 -0.7110321884690791 0.2848742483681985
-0.734421898071303 0.46285316035371665 -0.2315167673317536
1.4403623323237422 -0.48711811775721076 -0.002664905219738555
1.0560897890299126 -1.068818944799979 -0.00013318794087523135
1.1010050424471507 0.16218914411708554 0.32373153535183546
-1.0589093759218542 0.11022839162052189 -0.057862309664933956
0.12313510963917762 -1.1160501803127103 -0.25490673918798096
0.9783070873775469 -0.20367431762761454 -0.1688103250465618
-1.076637975950504 -0.42674770232577586 0.005467692407723632
0.07107615272900054 -0.9634174642770255 0.3219227688147296
0.10678747578698236 1.1182875999910564 0.21525343261669372
0.42738959082785866 -1.3072821088874655 0.20312085768554142
0.3923419361896113 -0.9486708760856243 0.3170583051251362
-0.6371481688707992 -0.8392795771059163 -0.20720219472136672
0.43732180613065974 -0.9490331906609875 -0.23626633712606993
-0.16634388134063594 -0.7344192478804905 -0.09867458244303023
-0.39944005818952905 -0.4724011422852406 -0.047015896185323876
-0.6816578912990151 0.32029708248590333 0.32827319716954056
0.4462687502027079 -0.7764232144629747 0.14967262256040256
0.4754783045106444 -0.8129834977233376 -0.12291163357281365
-0.4694225249025926 -0.3316958800302722 0.038484139147809064
1.2412925547948084 0.08532437230330366 -0.2398364292891378
-0.35518363148272225 -0.9183541859875667 -0.26333885306659827
-0.36323355799853696 0.3296404676815349 0.07683983400964661
-0.8194402183267049 0.05237555067360182 0.34232245456389865
-0.25648646206223397 -1.2103136179844882 -0.1670810489052616
0.17656845986728784 -1.3928605345516831 0.09279505490022086
0.7243365986634259 0.9036569297579042 -0.19581287226826316
1.1898559879602233 0.5723403748366009 0.2871769298892676
-0.04899460721665645 0.6765790659227358 0.28345883977347824
0.25866654460436544 0.6141461569664066 -0.019766298680488258
0.8705381121304403 1.0208464361630847 -0.003306489323945729
0.8137140616780183 -0.5291916793091695 0.22290020999133928
-0.37850582022949836 0.33195123506045526 -0.10518542220788885
-0.5293551944664795 -0.02450193340300942 0.18155087918554152
1.1734809044485577 -0.14892252638820572 -0.25685926617917065
0.6475749592574906 -0.6389456388512026 0.10752904905845306
0.11107119279868685 -1.0327010121864544 -0.250999064014754
1.158286602909974 0.545150602196079 0.2983987070000545
-0.035379527614165796 1.0064155501477288 0.3183146745214421
0.5437377233626747 0.9759136249715762 0.3318550152891875
-0.010988057061901937 -0.7634907455999934 -0.002095519948135654
0.5521889137829856 -1.216876237591197 0.2791794078681966
-1.0250652727382625 0.048356625299658285 -0.14692195470302863
0.47076716668904994 -0.7481131966174623 0.13101460224405523
0.30151733211502696 1.096456015334885 -0.15227082740129244
-0.753285270887794 -0.2731409660727471 -0.2489670581931737
0.7642778489295998 -0.579678731558403 0.20041447102555607
-0.8406705667760113 -0.20681447899080369 0.34091245702398737
0.428505720288657 0.5649031956534538 0.04597274514858647
0.42276142273718503 -0.7655163948869056 -0.009650566009093406
0.356765270991924 0.7926700209804739 0.34874985238547684
0.4986696059378676 -1.3270691844493663 0.21729411494750164
0.1052215311555084 1.0550762741794502 -0.2194760866270375
0.38605895854449157 1.2087457336561873 0.05497825388327983
-0.23865707842732314 1.0876309401838984 0.18526795389232256
0.22341064000270353 -1.4012061509161688 0.04404759430078086
-0.9826517640668222 -0.5828492482455921 -0.0536543868295831
-0.7651057203813179 0.6590524826048773 -0.10344632570708204
-0.8893612904794018 0.3877153788128919 -0.19714330779778458
-0.138288604178075 -0.7412923350108948 0.0860166571418596
0.19326693663151778 0.9292597638700986 -0.247722632852673
-0.1071075771137787 -0.8093241157874406 -0.1510480564089526
-0.15109513570833882 1.144889263389825 0.023327071418656503
1.4607697979222278 -0.404679886298154 0.11810305291224593
0.7877366149449291 -0.4909070996647273 0.01231075275056861
1.1329386982769238 0.35869839709220275 0.35554756094878215
-1.0440174615220248 0.049080112826337154 -0.1265514493565586
-0.5804973703342305 0.013674559833092563 -0.18579987184267951
0.6019407659276282 0.6561481821372602 -0.20825538769142155
1.2100248391513684 -0.03232923851006901 -0.24878920079931924
-0.6362860112002341 -1.0198987385560916 0.2490218509247976
-0.7409238148248011 0.7991528594945313 0.08865278699990181
-1.0832432682199946 -0.18148628342262693 0.17690100525514138
-0.3536413498616884 -0.5527362913285054 -0.05298083135448423
-0.4494668649745974 -0.3982036932483516 -0.05559560458386153
0.7355846988856577 0.4268242032844285 -0.10383183454895227
-0.6089629928000765 -0.11749300097950895 -0.1864223913750937
-0.7270649768111359 0.6027297208244683 -0.188457457947847
-0.6943553297910741 -0.10167366350736406 0.3176461100264617
0.7959586871477262 -0.7660555758606085 0.32303847729692803
-0.19691731376284 0.5492266227436912 0.23279909041835475
0.8459938670563508 0.3669391244995298 -0.14964217783273345
1.398094332681665 0.38810718328589916 -0.006064499735476785
-0.38963895704124424 0.26348505873232425 0.04855669721673576
1.1710304313946494 0.03805544908336534 0.3563506872668424
1.4941342755459401 -0.13181198391368373 0.10034428972142526
-0.9136175932570645 -0.2829547250136158 -0.23164982081756927
1.4266641849813622 -0.28552335472055745 -0.11760063972164381
0.5728750474824422 -0.7704178267615329 0.2436841559526822
-0.030135879427954145 1.0067578755854776 0.31183924952416836
0.05633642377373692 0.778850837942468 0.330484790228321
-0.5064800686617252 -0.4891329233917892 0.2827315111670535
-0.32102455364391 1.0856162243142278 -0.013678177354257852
0.46096889733969615 1.18560702427403 0.08033044170399412
0.6280896360217894 -0.7069546761172774 -0.10475331598613417
-0.03223056381835852 0.6433160105987211 -0.15420842835325024
1.1182107078194699 -0.1803734864558236 -0.23305907340711846
0.35308206944151477 0.5783480185147095 0.02595647535636057
0.9245018023070394 -0.03992726524479522 -0.06410771716521194
-0.5156144483514196 -0.7531969369240381 0.33378070190356857
-0.2660100644060347 -0.9369333373355374 0.3437395132975083
1.3898511984809871 -0.2847545108012356 -0.14604816538223228
0.6509688004063787 0.4843635187050878 -0.11455637894798384
0.8585228880718968 0.11718638368039808 -0.00048483659926901873
0.29903367762288396 -1.298131727744015 -0.17546545353862386
1.3251666454121767 -0.3164842421387147 0.3160911994860832
-0.1705935943196114 1.122460912328789 0.11761544886636757
-0.5430791214655672 0.6839535341198438 0.33043762436350543
-0.6693658538023683 -0.88056073495094 0.29543953348875823
0.6532743103438253 -0.6845351879801398 -0.06866001766986989
0.449624529328207 0.7135125098153453 -0.22278157009125635
0.8629932585165079 0.15913339083583558 -0.003199867158706769
-0.8047258718440174 -0.7180840868913733 0.28327473117601554
-0.8896091208009176 -0.15275374518656498 -0.2594213102725601
-0.7040073352291133 -0.5586340800285344 -0.24286908520773823
-0.9452419442430162 -0.30335804291538926 0.3120794560818135
-0.2481824968132928 1.0253610606834533 -0.18666062965003621
1.4934183914944568 -0.15837243327095482 0.046384216434615
-0.42087612432316895 -0.8772345344465743 -0.2484261238224515
-0.443640865028441 -0.7328701674398588 -0.22957788024617504
0.391628213412313 -1.2512713656782553 -0.18602588737248732
-1.078245737565222 -0.2694055360996817 0.11563504113294244
-0.5654253700770853 -0.2084679499783538 0.2444627320568778
0.6507175842916132 0.9775531204645168 -0.20730932023220788
1.0350412748158115 -0.7667551242250538 0.33703464577281866
0.8518703051450998 -1.1218610297975964 0.2714341127958479
0.8478911063395418 0.19315310103407798 0.08435782784280124
-0.02429398099074027 -0.7752000470904452 0.1289885006623837
0.9240302537590309 -0.0628665766941472 -0.04382578689902148
0.75260281887005 -0.9458836784833954 0.33926437754081784
-0.08274009187364581 -1.3097205794565145 -0.11773745622884647
-0.6750700904838123 -0.7527694416272764 0.33634651890005
0.5929211216747131 -0.8720293400621593 0.30399665311579993
0.4996395089991286 -0.7357360974080543 0.009839619380598769
-0.8916437901740947 0.30005477319818824 0.29184107137077914
-0.6165468552679103 0.8625416056621665 0.1617213637105165
1.2308527581350062 -0.9064273055369549 0.03671789524042322
-1.071662403807883 -0.10406072376467912 0.20731592160143325
-0.1365178972261987 -0.9170644119330419 0.32845775387667814
-0.5571022376653852 -0.9799680078817987 -0.20764407141933375
1.0128599833066374 -1.0010142038583805 -0.15300666163525742
0.045719117050261736 -1.195633714245904 -0.2362552531264172
1.2027103357935451 0.623222674653983 0.22414710704875787
0.06954379632560283 -1.2769221755241595 -0.2091156804975123
1.3404455975743754 0.19121131266876737 0.3174270596658537
-0.824978908323156 0.021181278012923094 0.3269017054665183
-0.5292018993143857 0.06335119006697364 -0.1297028431186743
1.4929031487898212 -0.18677699373310894 -0.005189477802197908
-0.03961365505455696 -0.7621819225268558 0.13297224467291358
1.2641333223095272 0.1190515641936677 -0.2497821898509534
-0.6274464051881221 0.8280713976259406 0.23046527910695863
-0.23307231274634602 1.0137116793863812 0.2902834217976576
-0.8640127461987002 -0.47411794142636254 0.3253016931121362
-0.5222136414797204 -0.751008443911438 0.3529610635224823
-0.6513380378887541 0.4383533181167937 0.3426997670570205
0.9892967010701411 -0.15666519739514778 -0.15010504584964973
-0.9035460882568371 -0.30787665028282346 0.3106245405549612
-0.2548074051257875 0.5715324983041997 0.2849826582537376
-0.5869333279769422 -0.5463637865582138 0.3317181673937487
0.7317016552771424 -0.7933092793928477 -0.2202851677988667
1.0728937560716894 0.862411425181785 0.0022127106486982064
1.3015530168217602 0.0767649645753884 0.329554731711862
0.10957504207989519 0.6386668264840066 0.21157412393412403
1.0392927636597502 0.37101919671367567 0.35136293200071417
-0.027884013511987788 0.9239189847906626 -0.2515439452542943
1.047245758513629 -1.0231073051819046 -0.10429911010030418
0.4240620701772808 0.5731634322445947 0.1487959076800108
0.3582374648739233 -0.8238123195791733 -0.09040702646696396
1.2510696193092692 -0.4578940611444431 -0.23216874878074156
-1.0766496306088584 -0.2507782896576192 0.09253068890873328
0.31228366420814124 1.027506260337304 -0.2352274310801667
1.0635041751938847 0.8730892142360891 -0.017754008088191303
1.372126123473033 0.42381067613423196 0.12414128697334627
0.9041505667079862 -0.5566227242693024 -0.19631732748405384
1.1605885645265646 -0.8151302163696312 0.27305413533353595
-0.5731779356796771 -0.40839204023289943 -0.20720901333838465
-0.44957007165822027 -0.3863684929447568 0.17385071248548356
-0.45988489510834235 -0.3291140513060857 0.008298168404826564
-0.5232383324419734 -0.03850812856579556 -0.034039598769319473
-0.48271148600006525 0.6708516868840488 0.36026659393223204
0.5682762853346939 -1.3338569640636695 0.11701003073429017
-0.038107697938675716 -1.2685339128270252 0.28462508394534525
-0.6860412799462807 -0.905030771976252 -0.15733329829056114
0.15207074491288147 -0.8796508132511455 -0.14311717417378678
-0.5476740872873787 0.6805256299388746 0.355671144915749
1.3279810847096531 -0.25077603958902195 -0.2342169035359674
0.6165345968237473 1.0432106602880389 -0.16073715795106602
-0.649102108879426 -0.055206151587079234 -0.1850837622727998
-0.3522006629934151 0.3192591936399175 0.1232850609155234
-0.5231481095958124 -0.7008041572837254 -0.24499140883583037
0.6506479598565378 0.4497590990684877 0.1148804460886197
1.3012802343885501 -0.5430333830039484 0.28397373492877026
-1.043812555741971 -0.10918538378205704 -0.12755892906024158
0.2772956775214342 -1.027880759114505 -0.23208649264126133
0.10938351628604408 0.6698481617408453 -0.17728875753711845
-0.5204212317198751 -0.1628528335497196 0.10546134280349954
1.3388848593218194 0.05906567766547584 -0.2056816026918407
-0.22928138887205748 0.5436619652166498 0.24416047767989113
0.7275934355690501 0.48753204067116973 0.25875304520918796
-0.43162487125144305 0.8462679065741858 0.32167069729819164
-0.5936189356162054 -0.865843430002748 0.3285278452706049
-0.03907592783261126 -1.1247755384467053 0.3487873034614621
1.375177393108572 0.4364216376912331 -0.06803960087583405
-0.24571386252486516 -1.2781724346880174 0.21608144832398396
-0.09940823572939246 0.6565140716188316 -0.180129190249452
0.6041110177451656 0.5585412026387789 0.21945318685332416
1.4677996932179065 0.07730026971894283 0.18255251847453513
-0.6029524686331375 -0.47388815557247244 -0.20951081616581693
-0.37828877667619587 -0.6460808056701226 -0.1829143068074045
-0.3829249341952532 -0.6317522752503472 0.27700785103513575
1.1169165486172048 0.8356569049621904 0.044064895819023835
-0.7754791613160108 -0.4319417640961254 0.35121713254342146
-0.1308636749801925 -0.706355941438101 0.020137661829564953
-0.2558337742758565 -1.1308301446753377 0.33671375148546095
-1.0067178374238694 0.007685506777471244 -0.1708131995920663
-0.40157437732265255 0.4838834910366556 -0.17725488190525018
0.7485441373038101 -0.7963727182650958 0.31134096549952983
-0.9273763366545624 -0.5577975799739879 -0.13630167312347743
0.4920958043341248 0.8542085665060841 -0.24759044734241095
-0.6471854674590442 0.11562248423329431 0.30714656632876636
0.6120818791074937 -0.7878068604877265 -0.17497897518521652
-0.63541778754297 0.7798594379630073 -0.1651788214819521
0.40377780239693645 -1.018204095517621 0.36237463726566355
1.0973091180466497 -0.5078327094355141 -0.24704420670060268
1.00103716676685 -0.41531658461855836 -0.21417339786581102
0.10772744906789232 0.6129447818840609 0.06814394313061559
-0.48097907475521295 -0.2489650215881354 0.08112300275728894
-0.7963202190761348 -0.24482796973872512 0.3500493520933617
-0.5256998824603876 -0.4523303475194209 0.27448959602184086
0.18326391767362601 -0.79865601055426 0.09675070768670763
-0.7968788454221087 -0.30939804216935357 0.36303544741920574
1.4974046825337022 -0.17045199518485557 0.0850983600739848
1.1715257980831772 0.5725710971754993 0.27546551958891063
-0.7917514761463349 -0.5709373263049502 0.3272372526001454
1.0469880453080305 0.3988834557630451 -0.2599340282974272
0.4596067186011219 -1.360960240087512 0.15070646026686846
-0.8243704234783212 0.6438537724045722 -0.053692641224201004
0.610957185696114 -1.3128755043028606 0.1537850562553531
0.6967567467262549 -0.6137287223949902 0.12349631890282106
-0.9636089788739018 -0.6358008890036214 0.13147299810834834
-0.4285225149336783 0.26076542716731543 0.16037009542525477
-0.2840898334995991 0.9906786723248336 0.27845147060516984
0.44464445914607287 -1.3431518467946606 -0.07178055145178712
-0.024302024550974938 -0.8323303165249777 0.23961831807224965
0.6727823226252427 -0.6212425413029156 -0.02371586152551832
-0.6421462144712108 -0.2674984227202994 0.3146550088052384
0.2578684019407755 0.8737991824048232 0.3336201700242801
0.8609047544362542 -1.170098203744082 0.2199446922123221
1.4118662218843367 -0.4909323220460642 -0.09997305639136939
-0.033910939498830374 -1.3195968371568347 -0.11974618477024657
0.7727393905713583 -1.254170667093156 0.12757404270076986
0.5644001507705253 -0.7519864627610114 0.2264282767185099
0.8528804619941108 -0.7005153353767904 0.33814071462786505
-0.5897227366817654 0.766116154789894 -0.19372767644721425
-0.9205353705943076 -0.3582797126508557 -0.20629328219259688
0.7565849580729461 0.4353923640032612 0.23942462837820094
-0.7639546964490294 -0.9702854219846943 0.05224082814413045
0.839432445309611 -0.9850041380178748 -0.24726011674825302
-0.5313742016686546 0.7716340865983168 0.3410674150293344
-0.24777936291656794 1.0848401479370717 -0.058491835638115525
-0.17368183425255188 0.7196389702069229 -0.24113399600028293
1.2161590368384165 0.48968232046364474 -0.20381865961263126
-0.819574716316779 0.6567211040696614 0.1787592235922537
0.6857783662538466 0.6332409343188157 -0.241761036420771
0.4846707050351997 -0.7526605671649794 -0.06825193846962316
0.8214135103292395 0.5535890988122266 0.3358348601435751
1.2236852225369452 -0.5289239135848648 -0.23891193121020876
0.5216420789433978 -0.738466473557779 0.04771701224591364
0.6114049525254719 -1.2634674194242075 -0.14708994772328116
0.7347899500875389 1.0679429245583727 -0.0962942120561886
1.2042502964934299 0.6672837635842004 0.1957436104813502
0.22944348713312912 -0.8458918666170331 -0.10990139720178124
0.9037249936769777 0.7111950126515177 0.3406250749039658
-0.0897569421400847 0.5431570201299701 0.04076524460574977
0.6871672728823872 -0.6160808157128518 0.10543299697891706
-0.8458122696706376 0.4481638813088099 0.2897317185401636
-0.8769926871925579 -0.5363751202266208 0.29399041472628595
0.4676178241634184 -1.3695341853335254 0.07185430620616892
0.3549609810552777 0.625964849493981 0.18970300567350232
0.2712099542114351 0.595042035545879 -0.011109250264392436
1.0551852067798935 0.1820524749885758 0.3171654075181673
1.4234889788681084 -0.42117206443007743 0.17861036852560178
0.7348621398630781 -0.8904637265236468 -0.23875530237703224
1.215336359898171 -0.5141814973302178 0.33960289548953226
0.8788618031241366 -0.28359504896278565 0.023675003355494217
-0.12869226547649654 0.7626816690519749 0.35305182630932314
1.408374991753269 0.1981950763586061 -0.09961757738158789
-0.5144013501827002 -0.21072779538320607 0.1567202443141008
1.1103355140484537 -0.8863631769203009 0.25517582048300247
0.6331700700736056 0.7150138521621177 -0.2509256340096829
-0.7745082027943991 -0.5845856756041756 0.34945582205251435
0.7673671003622818 -0.5134251802322135 -0.023759124118380954
0.5941636637895775 0.5860377384500324 -0.17288708418324475
1.0985092616694452 -0.7801043970150812 0.3353340791598058
0.751937162601636 0.39995326721103064 0.20202044379360212
-0.14356516578805562 -1.3557856155500152 -0.018391014859167665
0.42078314257937655 0.814870674299303 -0.2566935563636488
-0.05067082710659324 -1.261277510234209 0.28877444632254434
0.8585259490855068 -0.5198742651569269 -0.1443317054510956
0.817425834172437 -0.6950866843189273 0.30209817269568706
-0.6388956461342459 0.24510275475768217 0.34935486836881646
0.31566784564970335 -0.785605599954118 0.039110646029556904
0.5770151824251577 0.9265916133906817 -0.2325444584533118
-0.6255962591649822 -0.5697862617990785 -0.23022868235253519
0.45090135817680904 -1.1541264167598784 -0.2458965239628305
0.3355627679420829 -1.3806384014400253 -0.05428397732591588
-0.27690362233406945 0.868087284939477 -0.24694584795846528
-0.5159816545216627 0.1691870099664646 0.24714385563705144
-0.605950470623549 -0.7696908331482644 -0.24920335687596593
1.1187380694756368 -0.794609431649983 -0.2192709860734006
0.3801166184510033 0.577589612566522 0.13621255555175923
-0.3068629863739127 -0.6617845848052637 0.2200590713454061
0.9109005163904209 -0.1526964098820345 0.09489555056831564
1.28098630896389 -0.38635001820807874 -0.21485181987631427
0.003924941472130338 0.735345677324283 0.31764440096317775
-0.9756246827928321 -0.6571620868230846 0.02790813687805449
0.7676927639755118 -0.5238646937742114 -0.06615229863926914
-0.39560687139229944 -0.4814057701285381 0.14572687855343328
-0.1770496484590977 -1.3227773945052184 -0.06737716070801532
0.09660732544881473 -1.2503588444184408 0.30267937782994847
1.3050935713488299 -0.5725172133837642 -0.19212166432172167
0.39563113769103647 0.9589456070586824 0.33101824171446376
0.5643184149126474 -0.9920270158522518 -0.24799502455542688
0.8615194969685984 -0.3888012595999941 0.04829882517509161
-0.48271460498509805 0.5655445174751333 -0.2499602405648071
0.47533928257383085 -1.0222007794850894 -0.25490438153352213
-0.01603631762423577 -1.3055636335020913 -0.12520320051400735
-0.6399528372962238 -0.942386185907751 0.25406441523893797
-0.05664384018573677 -0.94507622890742 0.3242573984417756
-0.5057820840383729 -0.2763274271074657 0.16543699943025894
1.4025814255034212 0.38635830172825597 0.10774606832121258
0.06744526412649553 -0.8116755361288424 -0.021375117400478108
0.8956046445728121 -0.7277319455811609 0.3291556591656067
1.3012890584776906 -0.3999540154932092 0.30651400326784706
-0.8740246450325242 0.3254188727931675 0.2970679402298273
0.9190428492143818 0.01677925600569045 0.21275112316743705
0.9005599204478402 -0.27879596749474445 -0.008714211707956537
-0.562025791909096 -0.7960561052139569 0.35097623114747556
-0.15479729647803772 -0.7756020417650604 0.24435488322039384
-0.5634350046475476 -1.1424770857807423 -0.012610333803153463
-0.4324636180591038 0.19553452757748263 0.07462704878208293
-0.3068137357699785 -1.2706540457804156 0.17994193328164068
0.7729455733647667 -1.2057239493710936 0.21564324030755455
0.7443197696623074 -1.2974667682110987 0.023892451581933028
0.5801965822240688 -1.0373805350574434 -0.24182414101226196
-0.37393580975803536 0.9358462971231656 0.30305337752975037
-0.4837849975759885 -0.6084772317033506 0.31542119935008883
-0.40949638594895277 0.6076346017666474 0.34494551442682303
-0.5771126072921081 -1.073025855868023 0.21531489383186567
0.970495161812044 0.006004470201101857 -0.16614899068157746
-0.5189918911498732 -0.3981883605014508 0.25959813435431467
-0.39816021922003625 -1.1201644671528392 0.3006667551593109
0.5244114358850773 -0.7388763258767144 -0.025705829722641547
-0.52916640202485 0.26323057987340104 -0.1907023676602507
0.9526246710455089 0.9685976496708513 0.051468322735413054
0.8825881933467086 0.1602579506270608 -0.049044193591695776
-0.35043891504028446 -0.5429319752852213 0.19246432211091305
-0.9194396879810173 0.07164889916894339 0.32379378059500163
1.0926855627803733 -0.435384041816516 -0.2633508701064305
-0.8550377918437196 -0.23066854104252432 -0.2409342130432372
-0.2927600666459434 -1.0244307367771408 -0.2498420227467494
0.6354375912428112 -0.6641062913065006 0.05799865981461276
-0.3444195712737909 0.3746864259835603 -0.05110721681333099
-0.5005447759190549 -0.42183939915223656 -0.12022387709420673
0.22839520001103997 0.7299900811410838 -0.1998534740374587
0.723351200269977 0.7723436598925317 -0.23838669687336436
0.5360742056309613 -0.835538138527873 -0.16033350490477555
-0.6040114105565402 -0.2882125213979458 0.3019322407951223
0.13535405624942667 -1.3567829015616721 -0.11660609847404493
-0.5778281456561685 -0.4981380131780698 0.32505489389013487
0.9382948616981761 0.8799126258833369 -0.14427312523816507
0.8903883369581094 0.27598582932473165 0.2738028682958139
0.987306033705383 -0.6820206684747269 -0.22892960091253814
0.895427763230238 0.6373196732176772 0.35349785989287763
-0.15452169186999132 -0.9127732213164433 0.33206280749981604
0.255477368707635 1.1713267792053763 0.1998056540035334
0.49432953339384433 -0.7794415991876992 -0.10746077537129049
-0.664197518030157 -0.06429523196310104 0.318931683525878
0.19154218663416578 -0.7978031212770621 0.11237720720686513
0.835470543984789 0.28340689936837743 0.21822415537822304
0.7593681063511044 -0.8069033229149248 0.3387080020748061
-0.5175477402732259 0.7499607154232666 -0.21809236227644563
1.2649601246777555 -0.2021028884624947 -0.2358723669435668
-0.8379136347504916 0.3696705246158852 0.32922413454419225
1.151539284739922 -0.911240528173702 -0.1021231622013234
-0.6637981045592771 0.5616711373391887 -0.23340673475670382
-0.796748426128527 -0.15967016100381412 -0.2702294034642406
-0.8175662548019021 -0.592522078936953 -0.22296342870968042
0.16486750437431327 0.7577249070927737 0.3114960215159228
1.4880512136710198 0.04016603534851907 0.04541278573048989
-0.8764174765690516 -0.661775323014112 0.2618327553795902
-0.511235254705547 -0.6963841644828291 0.3626097486203046
0.6850177343869961 0.4914937325198929 -0.12837663179684025
0.6221739410025932 -1.241703805645455 -0.1712602190076209
-0.3770565838787636 -1.0087094595625186 -0.2413664499013646
0.9241372385088586 -0.4062231375295916 0.2573019510576602
-0.026332501839043173 1.0852695542485093 -0.16341443590293925
0.7094219340295616 -0.6069968946430423 0.08012171492609312
-0.32814198465667593 0.47093640252925156 0.2673999752473998
0.9882407785578177 0.842974813178023 0.2360242148870769
0.5785668055050331 1.1418753214782063 -0.0022262195399803154
-0.40176461789626067 -0.6659230282525826 -0.20243857534947382
1.3253245207053 -0.7468623053704814 0.10797440353770396
-0.1768416009697038 1.1098865414675116 -0.09627079763317747
1.4760592718245598 -0.08174895908595066 -0.05379700999423859
-0.8353816335501644 0.5387965325868832 -0.17019701833215006
1.031523267564033 -0.20973168801412576 0.305107351125776
0.8375938836321491 -0.6204154349725108 -0.19188375385315834
0.8713654359344423 0.24213886975459067 -0.11841430504480503
-0.5067457162949014 -0.36886458823876134 0.22950143531337888
-0.06478858121521945 -0.863981862605391 -0.1732824337568781
0.7813451390616569 0.7423157088071553 0.3670715263184568
0.25437695245889236 1.1256286669555216 0.23634042426136617
-0.9232266591595941 -0.12129321681022864 0.323515887676183
-0.32543450256719864 0.41308205506686096 0.20373825125824885
0.8433964848956133 -0.4234846388025689 0.153528960829698
-1.0601588081638231 -0.3119000508963083 0.09922061409806095
0.20427424569092922 0.8519992323350495 0.34741316376620535
0.1696249625779354 -0.7951630611546863 0.10090356990363983
-0.7242446602494509 -0.9870762405685359 0.1869284085489858
1.2642286250651558 -0.8506920640049652 0.021595470469761555
0.3828007757282446 -1.1859657453019665 -0.23680727489667874
0.30900878676856136 -0.8133160453468834 -0.10223103631912811
-0.012043121323009805 0.9972232326913123 -0.2094732760661334
-0.8295238709788324 -0.0718012171773425 0.353561596373525
0.2590070575844738 -0.8481002924245938 -0.09978431194692186
0.8155987585216264 0.27799679060232135 -0.06019167587593848
0.8627564428031701 0.42365241176672214 0.2904364120322435
0.6860967127558539 -1.2989646487114093 0.05659086304450002
0.6137006156723487 -0.8864318834995188 0.3168613892066496
-0.5744381679189553 -0.2976261645074519 0.26369119993677226
1.0311230319420424 0.4382345234864876 0.3521846618307146
1.4317487007891705 -0.5359528481171246 0.12554903866853917
-0.4711311175880557 0.10085260915090816 0.010137728445083677
-0.01298808492061225 -1.3610996138975524 -0.0652709367519117
-0.5887410054047871 0.32580916672701665 -0.24451382250351342
0.5007080131474647 -1.0169464020775751 0.3547560744797408
-0.4531045973324397 0.27470298648656843 0.19099559337773067
-0.4190868399627155 0.5071613589184819 0.33777645444220344
-0.6578499445385617 0.2913833681524445 -0.2438300491946195
0.4630991523495348 0.7166272538760873 -0.2097285048271168
0.32805221281166674 -0.8235848859591701 0.18194094012730336
-0.47548467911319076 0.16107609109622528 0.05820307356746489
0.09629591116074945 0.5799064741853251 0.06233576354911245
0.208487985445098 0.9254665868188275 -0.2549674093190051
-0.4441960025811594 -0.3923529595539472 0.0070081674604948845
0.3019375101263635 0.9011967138141538 0.3457408659939766
-0.06815351842428742 1.005068903683336 -0.21805704876169102
-0.30128804652846025 0.3978804167905465 0.10959513090100778
0.2711899229748026 -1.17525881506241 0.333960880563444
1.4558195798433897 -0.2613330604825056 -0.08572826524830891
-0.38217756741973546 0.7749629761015111 -0.24395808813327777
-0.46501221568126033 0.3968250133673696 -0.1996774733246919
-0.5642410266910209 0.1442143425244937 0.2728473201904676
-0.38685981480923176 -1.1053747364355442 -0.1733094172929767
0.6599579807253415 -0.625705389486372 -0.008818583430726432
1.2244138723801268 -0.7872596575128257 -0.14481013379949068
0.5380216670954171 -0.9137654857535363 0.3179099259337165
0.83216158415688 -1.2000053490074885 -0.08051381755825537
0.6370366529509267 -0.7358206496648398 -0.140780473315909
0.7984739786022674 -1.0624056114019864 0.30722992319556897
0.8221896580005147 0.2636222835846047 0.04990944081009656
-1.0710513386261111 0.027720639249677385 0.13085430407216442
1.177707061685785 -0.8642276205077108 0.22928262983914524
-0.45271272405693275 0.18562918166124356 -0.060106315141243566
0.7500380166300727 -1.0813437843684104 -0.2186300845535352
0.035398311733767084 -1.2790353707132192 0.27197672730604455
0.0001024335212024231 -0.822749471840281 -0.1459951119933033
-0.7037761592566488 -0.47825313387130813 0.3425270842063991
-1.0111697091762044 -0.2764221123529617 -0.14006987273869376
0.03232432937583171 0.9024364184853899 0.33692102226621046
0.9390320525268203 -1.1555556597276768 0.013033526003074548
-0.9960325149841982 -0.6266210642944111 0.01956085865969784
0.7630806938417637 0.4599637559567677 0.2521684248621398
0.6776151606751686 0.41607874187170174 0.10059056692088232
-0.18351594949353459 0.7853336464124876 0.356454559036812
-0.4405351324816061 -0.8183653920237842 -0.2402803115386216
0.3508609185371425 -0.9861925113407677 0.32035230490465383
0.79429889162926 0.9592071850524743 -0.165125591487999
-0.11623086031181919 1.1726373643767483 0.05853271509864032
-0.9186759645618195 0.03429176482177282 -0.2098198593174449
1.008543249162374 0.737539677548322 -0.19953430667936942
0.6660617555055478 -0.6935090455504663 -0.13520424223550823
1.3108413724438799 0.3996761137857405 0.2831608162876753
-0.7073676969450964 0.7137275494731244 -0.1539344944959514
-0.8019408393598739 -0.015759274746297302 -0.25311746112770783
0.3854299781366591 1.192240772042814 0.010200741047563645
1.0893000788140266 -0.9556174019255336 0.2422971873672532
1.4394692438953522 -0.40990043012698263 0.16145905379805764
-0.5753302636950429 -0.5072440665204181 0.3333905046415315
-0.31702428219632733 -1.1791261675738045 -0.18011372529061354
-0.19826784428322058 -0.9848541941916314 -0.2493078207361352
1.1206264690834384 -1.0105236365535573 0.08802782667538105
-0.7750238205804 -0.5689692772014447 -0.2365103106824545
-0.6987236065075453 -1.030091706527744 0.03528062114662643
1.420952924717901 -0.22633935115115686 -0.15958908579643138
1.3429891093866595 -0.45710681908686285 0.24557602583113564
0.7308240263000771 -0.6354017612082554 -0.11307919760468985
0.7742670762836197 -0.568841160531403 -0.08383919378436198
1.0564013033337685 -0.33445365853761655 0.3427944334110865
-0.8126185665670692 0.221410338711412 0.34652123295087445
-0.15584094140296226 1.074873851916835 -0.16685604036503965
0.8108542165770429 -0.4943157574295781 -0.08954607250132987
0.09649376903523656 -0.7936368170741409 0.14700663582179932
1.318933859903409 -0.7341243526433385 -0.07407584281043236
1.0698300309030342 0.7987240303395902 0.2330973539975396
-0.7208209663552768 -0.511202668910094 -0.249198536602521
1.1978016895493575 0.6466018796561707 -0.10253880756246031
-0.8718552712333133 0.448954867313479 0.2675268285332238
1.1465536683651971 -0.8163697689245171 0.2990844093993555
1.3031657610115404 -0.5966851177135766 -0.1498334924870908
-0.0628891303363418 0.5258022458084005 0.04678994890770203
-0.6305413862562864 -0.8602776806989243 0.31368687025233183
-0.907543153154349 0.40559115937720536 0.2643038781386926
-0.06511000092003266 -0.8051154650452551 0.20058547202652904
0.7185389806471429 0.3904071705086967 0.06940516006657946
-0.14007339230208044 1.0141067015560636 -0.20155460341958356
0.4582326233480227 0.5530656093495028 0.04040153059883703
1.4227904178909352 0.0944875691082513 0.261491439337172
0.8921694044100404 -0.29881407625123274 0.1747448006961936
-0.6345508089152682 -0.8793024979973101 -0.22166739660756846
-0.902041484965837 -0.6746454628398584 0.24559324278569408
-0.17493899413733172 -0.7120261328037355 -0.05504428977672633
-0.18307990127237775 0.8949028782501207 0.3414828713899763
-0.25602747833086903 -0.6450451058614867 0.062062483784776225
-0.20635179202399498 1.0549452171172193 -0.1320462218116458
0.3026700328806808 -1.372600647173006 0.15357887027100514
0.5739012149126055 0.555175578534506 0.22519399401858642
1.0914550025981395 0.37330625240848136 -0.2532519587720213
-0.5079896399533044 0.9349908991871995 0.18211654584455544
-0.6911408749295778 0.18993010932852414 -0.22421194409698503
-0.540844281697539 0.16416832145588792 -0.15821243691145198
0.3872063933380142 -0.7878754239071215 0.13410185371335448
0.21726961213026957 -1.1782120663509807 0.3426831174782794
0.7280388588991605 1.00770986548777 -0.14369976828207698
-0.7158902729406028 0.4296711438603446 0.3526693074395042
0.8040844782020364 -0.5792043105875542 0.2515078525927399
-1.0369218163595033 -0.01629263880495971 -0.1133455948657724
-0.07951961880155584 -0.9026510080057301 0.31634517760430736
1.1865030807381274 -0.18368198150700404 -0.2649217686257693
1.2190977138234762 -0.8395649536045848 0.21152916915129794
0.6982437911207997 -1.1765396053338615 0.2767578508544153
0.9289621045100214 -0.0932308587429383 -0.07522526145645944
-1.0425851868115807 -0.35148639962570194 -0.1279831505715209
0.6566541674641355 -0.7328359040809541 0.2547414616880179
1.4261649307397537 -0.15978251281024636 -0.15935613042070138
0.10106159413108098 1.1839297853899802 0.12750144210864514
-0.5734297317432154 0.03222375422249221 0.26242018355680546
0.46109872979037947 0.5694935002524576 0.13965374901612915
0.5890764730693352 -0.7311540481768942 0.18613050892092858
-0.8014136683870455 -0.9359375067700106 0.12032756186738282
-0.3815195962245779 -1.07735896502255 0.31745847456825066
0.22524524051850098 0.607207809517853 -0.040668385002475826
-0.8191839032341077 -0.04952541799639738 0.3367185742670702
-0.9263066081262532 -0.17525205093619334 0.3338025756051398
0.2754197690061453 -1.1070973810548708 0.3592110053941562
0.06514245001213076 0.5928343249896767 0.04918063342752552
1.2941346326002676 -0.6045526089098909 -0.17309217476446073
0.09468004347578338 0.9875701565447711 0.3412722498612562
-0.8487932007913026 -0.8695453493430936 0.09979719950703979
1.240636495456943 -0.8500701226596542 -0.04830663576814561
0.03865491735638853 0.797930107824351 0.3480770992332321
-0.25798572155675176 1.131543816133926 0.07107558403677852
-0.11173706136563234 0.9908402843571673 -0.21737072362419743
-0.27196458776227606 -0.6500828824940644 -0.07840777393130674
0.06894852966862261 0.6395142409507975 -0.14259115600213723
1.0169977515381883 0.3072675641393102 -0.22166869546855003
-1.009912792941862 -0.4305611291884031 -0.05285264032250245
1.2775148823516667 -0.8112061847695937 0.12844130465415224
0.7815379765625803 -0.5098258112371814 0.002399732884751496
-0.254825435724051 0.42310735787381604 0.04436045369313563
-0.7812645922525991 -0.8887505483850471 -0.11102447144815807
-0.49732192625297605 -0.1633646707528238 0.08846530002104847
0.9723613694393483 -1.1208206213442906 0.1382107197251753
0.3337238009105676 1.1508261638287118 -0.11021722410488145
0.7665833387674726 0.759429210569357 -0.2432658827341827
-0.6355358261641674 0.6638614384314551 -0.21684931168983934
-0.734261459428582 0.8019985910566119 0.0020152468341351885
1.1405401991283022 -0.7808871269966614 -0.1998912593495475
0.7545520916002788 0.42589804337358594 0.24622169452577422
-0.08136024015087504 0.6866506032923535 0.3187209484506286
0.9898660325552365 -0.4590197428901197 0.31300888689623685
1.1783856814370965 -0.6668365294455053 -0.20887852162839957
0.9045928648345952 -0.2114121226990903 0.04677719278729526
0.6276948979990603 0.5889283105437217 0.27292996875880843
1.4821848233313824 -0.10947778052820104 0.07882640065277016
0.44769768456851006 -1.2304199692721514 -0.23249335764120185
-1.0777101725132923 -0.3752106482509204 0.0060807766454362144
1.3756835116730644 -0.33560614814207135 0.25615990041427006
0.12408846391122039 -1.3548373856091027 0.1926196997783571
1.1945584636719708 0.454847614789763 -0.2219690059172716
-0.6083659816913114 0.4312239659036602 -0.24586692949489647
0.047064004233801346 0.6414404740375798 0.24809824115630486
-0.7166807592969631 0.7402357670578844 0.22128539087776417
0.7602278847172717 -0.9781153037644383 0.33358410507619474
0.970975250244219 0.29791520199168287 0.3161678968676634
0.378264302724606 -0.7688380556844744 0.027195049108175644
0.35187938217701054 1.1536020079406075 -0.07857286286153234
1.4118158336423041 -0.015789805082739236 -0.17471816800060314
1.0152312787720508 -0.6046199023903935 0.3284594722036193
1.0491175384343083 0.7694599558175558 0.24497623387430215
-0.9952476365754727 -0.3875752954957145 -0.13575093731999857
0.4418270348202964 0.5879918694446709 0.20987001498210536
0.5030688134165329 -1.1223261637379374 0.33874532841775895
1.4842211089407331 0.10855302998276 0.03353458631538907
-0.23250253574564045 0.8151362370327695 -0.25337310866448093
0.21403656068480775 -1.4004484758905802 0.10640009921678746
1.0341784998263075 -1.0599547366892705 -0.036442092509511304
-0.1235971391610917 0.9579693813590573 0.3261705519720684
-0.31289454596991956 1.0451900094349482 -0.12038758671384697
0.5852936271844705 1.106592675549096 0.20329262033181078
0.12796364874035696 0.8446162569317412 -0.2447992789696852
1.2271174701949044 -0.2484753149313015 -0.23490575716567375
0.25247784392161193 -0.8331244531334647 -0.07533147753104491
0.6329386118389134 -0.9867698355823376 -0.2509849555045086
1.1313073727753848 -0.8047136477737035 -0.18095255859744788
-0.5734939535628972 -0.9712929227266442 -0.19048308536583275
-0.49993313807268136 0.020860527897846592 -0.00043311665784765904
-0.3136834615545946 0.8148324111834445 -0.2528592402445127
-0.5717815144440269 -0.5100723496240497 0.3192896760674308
0.9245934611624633 0.3838329692520787 0.3415612330865881
-0.5147827495561945 -1.2049324697326214 0.03711860404190708
-0.5418871516284616 0.16347900616293917 -0.14710447236110144
0.2491298994655042 0.6667551377648095 -0.13396363515901294
1.0438146240756792 -0.7428976992280829 0.36340908513751546
0.6296816428518254 -1.0224092228752455 -0.2467850858431673
-0.25966621275332863 -0.8252820547899816 -0.20661326887032824
0.4300878337997996 -1.3770146241693613 0.0814569516830054
1.2071925610834893 0.3234395592788278 -0.2380803695864673
0.44470630981072684 0.7725336389916037 -0.24334099847567803
0.16061371248190542 0.9203760407588677 0.35457778435849385
0.6551057419296882 -1.3210174308951352 0.031778359730501714
0.6693378965459469 1.1072110566967421 -0.007463206804007645
-0.46957982562561784 -0.3571528197779669 0.10042148082512521
0.6592495977821763 1.102544705872707 0.048232726507114625
1.3157130107892951 0.5753667810901676 0.127330857563086
0.6567802985786202 0.815637034616779 -0.23907109924792352
-0.17481837507927842 -1.3586654934672484 0.039519333614466336
-0.005649388353487826 0.8596331575749038 0.36204287857037
-0.9129514337877942 0.16860355595046042 0.31653364115311666
0.7946432282262089 0.37207873771106637 -0.12956455506075612
-0.58748866755455 0.5805625973900413 0.3668395423776084
0.4301208868533771 -0.9574718167523402 0.32652160633347105
0.034127805064584044 0.6666932460044672 0.22420110511064809
1.3896315623609365 0.08325977421403834 -0.15539285386470217
-0.12290598760755445 -1.2563658201936596 -0.1721789712970316
-0.4011423402435444 -0.4632715184727633 0.027561881909997178
0.306434752437956 1.1019535192177636 -0.16385224633964796
0.9338991976690401 0.44323931140491163 0.3407297136846544
0.0696594188943682 -1.0741784258019813 0.3496200559905301
-0.07969122086537056 -0.8122509272528169 -0.13541993068617247
-0.9672362501654262 -0.12824692246331362 -0.20498890295226055
-0.06982664602091529 0.9367366372617684 0.337095881505478
-0.7072981134375829 0.13543353948540954 0.3478206952694326
-0.39949050705920125 1.0463366367850218 0.03134920347870284
0.2984560931755306 -1.0612177617234309 0.3417555984764507
-0.7446817481718737 -0.6963597929846346 0.33296121232424797
1.3367354533457698 0.5509180020356065 0.09165680182862869
-0.4958215854010015 -0.5282865889115226 0.2908710540713137
0.2202772647278404 -1.3638929683226193 0.18311787019761852
0.6693131919267618 -0.662692445525096 0.1723029984174855
1.0019825519745575 -0.8966896182884324 0.33052485844690144
-0.7832657995436251 -0.7876410568188099 0.273984011146598
1.1826118302103803 0.7133982641017903 0.14711874416664888
-0.7893813524208803 0.6870734116667943 0.18666372411990442
1.362330832314267 -0.49371854546212607 -0.1428046637653814
0.3124450606532863 0.9006731641368803 0.3328629631073565
0.9705055928098639 -1.0637419052746169 -0.11809459625569664
-0.4410853888385475 -1.2203161700629297 0.01234587967572215
-0.8974253638580696 -0.7778120574106103 0.0842712224414244
-0.719164040132235 -0.8775501364926669 -0.161729285683541
0.9240909364024945 -0.6412519797103943 0.34581132884560567
-0.11202168324023815 -0.7699917202829039 0.18709527332145084
-0.35888623733910585 0.5419491362598976 0.3188772344437836
0.3421390404525719 0.6332020582744635 -0.1364075884743731
1.1153189818619547 -0.3208668964237934 -0.24991944739146246
1.4483430943136322 -0.47394942500227183 -0.04835827978712915
-0.5409273941704583 -0.1057701101884575 -0.09038328831936428
-0.0947799337814515 -0.7551277932002473 -0.050697394953491584
0.4437525687126522 -0.9902528560981374 0.33373481441863845
1.3201485183225434 -0.7380794231368656 -0.045177898180956126
0.8952425188604822 -0.7001713533358431 -0.24695439016611032
-0.9983603554858131 -0.5098466202547886 0.1873741838760799
0.5927525944463696 0.5742776643000906 0.2423065979666398
0.27920832217794456 0.7224837891931586 0.28080070341677066
0.8437917500157268 -0.6648067800292689 -0.2186454398037213
0.8539336222127919 0.8668199321668221 -0.20842604238641727
0.5524965479222932 -1.3044206180828672 -0.10323447174242512
-0.7278386744893525 -0.6324501621192252 0.34346984409405307
0.9398361210728259 -0.11638244674142194 -0.08823960585262879
0.5887193821516077 0.5375255249515278 0.20974649095229678
1.270908315024937 -0.8566852379183275 0.01911120478899217
-0.14391890228768403 0.5410905090098386 -0.06422242518202324
-0.5695133570910745 -0.16935238250399037 0.21927216744578282
0.643651769078669 0.4464083098459243 0.13999629096508395
-0.4569994335026125 -0.3611392057227231 -0.008038273083302063
0.6477692009208775 -1.2860477804335093 -0.08168795624428588
-0.6022031598033417 -0.11029283559156049 -0.1896008408111735
0.4612209728830521 -1.1700133187767083 -0.23579661801533716
1.0741138286308585 -0.05686000068008419 -0.22595950227951286
0.8705121608909488 -0.6560515634141633 0.3507923564554566
