ply
format ascii 1.0
element vertex 125
property float x
property float y
property float z
end_header
0.7089316685140814 -0.08856185856876578 -0.21699820452405133
0.691305269235822 -0.10290614998464123 0.04994439525565138
0.7017379563992462 -0.11056303384088738 0.29709527975025196
0.7028245365113471 -0.09433088375448663 0.5526402949746814
0.7014638218572218 -0.1017343744356639 0.7888402177976684
0.6849144940137873 0.14077611068758905 -0.19333810128141152
0.7004512082679013 0.17154994871863266 0.04263402546153865
0.7009727964149957 0.17003486463633086 0.2971643875912184
0.7025002874267415 0.1629801910851893 0.5486484207622535
0.7186300865782389 0.14739797061342563 0.8123356621854834
0.6822239593197142 0.41416728735079 -0.20388136244194338
0.7025447792256454 0.39315343144465814 0.053746124739526446
0.6978645213247792 0.38879679337549305 0.3071036888317511
0.7117424622247378 0.4081105529340285 0.5435599015116093
0.7044551861960187 0.39254306705162506 0.7957908863586552
0.6779746101058938 0.6312638156312308 -0.19969053107644782
0.6880508728601533 0.6557123477204143 0.05376461885256352
0.7072251764232929 0.6462530651715072 0.30890479534447635
0.7137024056264591 0.6601173785155727 0.5549061743997113
0.6882456931547923 0.6552268029255064 0.7948429169067034
0.7047653174675541 0.9021738851897928 -0.203850496327449
0.697639893324235 0.8934906021169358 0.0343994922321329
0.7031894978540598 0.9039941894799267 0.2957152954183817
0.6952895507588571 0.9016600701856592 0.5522471310715363
0.7180929082771517 0.884535403513532 0.8315075996808761
0.9480456326754105 -0.08994805119453649 -0.19604632785808465
0.9448164287258579 -0.08647041170023152 0.04925897852966141
0.9517975486292606 -0.07738176389704846 0.3177296912795753
0.9645783419040608 -0.10903054548773447 0.5557129440666757
0.9589620411262105 -0.09783788433733875 0.810420304536748
0.9431985945645468 0.14855579593830848 -0.20349449695404226
0.9411016793481052 0.1469357856490972 0.04625000874336089
0.9507423520086742 0.14729879245217542 0.32222724950645254
0.9573403700977038 0.15222684072389855 0.553511296447095
0.9554987964308844 0.1464398907098066 0.7930580881650936
0.9437480187105513 0.41635150718479197 -0.2147161169761419
0.9535175518711442 0.4039392606443312 0.05131588788091578
0.957087276645877 0.4061234658450107 0.3083237775580718
0.9455717285762009 0.3942435002044825 0.5701621865036155
0.9515659646442857 0.41233102406075967 0.8106891635217891
0.9514294520429718 0.6485000627620442 -0.19429833444865566
0.9317495028838532 0.6425691335757662 0.029442726023107827
0.9490202775175579 0.6426257636331691 0.30860213585561047
0.9641223991279584 0.656692893932295 0.5639179825032338
0.9486414174598493 0.6624111328077402 0.7969009794098612
0.9597592832019133 0.9024938559762659 -0.19637198524170102
0.9556021608213415 0.902674543128586 0.051227009389555024
0.966488151771581 0.8996882992952184 0.30028016106231054
0.9478291703742345 0.8977942001801318 0.5387499705554689
0.9554118599784909 0.9001681762287659 0.7778046237103255
1.1986947895638662 -0.088244930256771 -0.1965130300578839
1.1966422232080243 -0.10350189916841687 0.04386568850691789
1.2010846386085585 -0.09516876633608325 0.2977923969757592
1.1959042619964955 -0.08955510393397804 0.5456883404750504
1.1999886197160885 -0.09759363897837306 0.8156339250716547
1.2025304328637902 0.15268633009175311 -0.1919367891061376
1.2070366320296475 0.16810218127673351 0.03445284672701573
1.2018332182650444 0.1415484052504222 0.3085441720188668
1.222514241929082 0.15460112326426675 0.5344984638968966
1.2091472584336747 0.14371096266020397 0.7888286330007651
1.2090671926618994 0.3932530110154491 -0.21233176953829616
1.2151954221573733 0.39805353848687386 0.03883995093571044
1.191152105204227 0.39996611239379537 0.31117088168652157
1.1949569605616368 0.3924361748781318 0.5497391845894603
1.2013327142170518 0.3999606254424113 0.8022027335617606
1.20469565580026 0.6558851185497404 -0.18789906612963425
1.2013410761410646 0.639275518905013 0.05297501247210242
1.1982372643101855 0.6732590805361108 0.3028151485619102
1.1931239673489389 0.6598781374396184 0.5704919712867904
1.2033673412284012 0.6553390805569077 0.7892173255943389
1.2026614244367893 0.8910897908232924 -0.19890159709569133
1.208367623131163 0.897715191135897 0.03835403893984414
1.2123165665927906 0.9106960288709709 0.29626705118083163
1.1968107752104926 0.9158289631003862 0.5475724433675894
1.1797548517895076 0.9081905748069875 0.8026571569119947
1.4591684656700736 -0.11269381447334995 -0.19513650755950368
1.4514150277411013 -0.1007330740909002 0.0465248043002879
1.4460451856605856 -0.09222649037487132 0.31845488387193077
1.4433318620639768 -0.12583866455376583 0.5416187265038745
1.445241244530472 -0.08983908216030334 0.7905486451065163
1.4337093081618957 0.16044508008436523 -0.19188629136664256
1.445559560308175 0.1340117239247495 0.04515792204238488
1.4580738174142394 0.1524838361037843 0.2994356088879404
1.4581180909079714 0.14082960400774314 0.5520747258391364
1.4673052797824802 0.1432515555979724 0.8085690033798647
1.4346602997619833 0.3981551422262261 -0.21232961482686863
1.4565754582486907 0.3989138082180292 0.05165232729189394
1.4522729234741827 0.41582977213566125 0.30583953519791096
1.4534628253019075 0.39759429861251316 0.5678475408052212
1.4435047001079846 0.40555033357180836 0.8065119449119993
1.4351355185705474 0.6457325551532701 -0.1930184697853889
1.4449557248788634 0.6419454158937259 0.06588773441120348
1.437682457022026 0.6483086466807546 0.3028399297550612
1.4490112028085465 0.6532924521116594 0.5575201378960953
1.4637021360364746 0.6546780647201335 0.8230638659755665
1.449515498398983 0.9097923833599147 -0.18475058960073507
1.439649682989504 0.9003123234710659 0.047045530896188716
1.4572717498217653 0.8995523626890076 0.30323631218326613
1.4595807133768768 0.8910050633661356 0.5611209850500422
1.463615658070812 0.8912467407915516 0.7976571372913738
1.6894176487873347 -0.09429077000205172 -0.1935175247046979
1.6877623711437557 -0.100820290448164 0.05565863550824256
1.7094452584470035 -0.09137836407638661 0.28991601991635535
1.7092817348382783 -0.10608646640265934 0.5568955412423938
1.6858479842880807 -0.10372022320249845 0.7981348582219612
1.691749072201132 0.14989998708524788 -0.1952436846931574
1.701708228117864 0.16395393049727877 0.03585569790732005
1.6932599900586474 0.12930622304712677 0.31179244768945963
1.6961135772995057 0.15939446092706044 0.5461268715676648
1.7121473493798252 0.17232807082376933 0.7994267256265831
1.6934851900823558 0.3978143584889678 -0.19788066237333163
1.6941067638015845 0.4012485798734445 0.05352297410157121
1.6955407554487965 0.40169180028201457 0.3031304809536537
1.699427522403855 0.40316973179971016 0.5363169692714761
1.7181607410201176 0.40928497970131916 0.79157142579408
1.70571808286338 0.648822705348787 -0.19733597655820456
1.7061030011170064 0.6549014311133758 0.04488541085739429
1.7080936125147772 0.6269909683651228 0.2822043294151421
1.7085113014450684 0.6490576156800967 0.5531684885820386
1.6966353405965438 0.6515855173794178 0.8059585355351349
1.6896703561315707 0.8738014207212599 -0.20517443538990116
1.6942080471931917 0.8978075973945534 0.04565169805969196
1.7005114243573103 0.9012598550576818 0.301376459339053
1.6921745299190054 0.894301447719899 0.5530355627648289
1.7165474840879527 0.8897020770701324 0.805438904003665
